ply
format ascii 1.0
element vertex 1236
property float x
property float y
property float z
property uint8 red
property uint8 green
property uint8 blue
end_header
0.578411 1.740203 -1.266183 2 57 59
0.580400 1.739891 -1.263528 128 157 159
0.359360 1.915907 -1.190932 42 77 79
0.912634 1.948111 -1.765049 124 63 86
0.582138 1.761728 -1.892693 253 137 127
0.892982 1.836541 -1.971515 235 126 85
0.622845 1.979171 -2.326434 0 0 0
0.880125 2.015419 -1.670920 15 35 67
0.880473 2.028147 -1.671380 15 35 67
0.820788 1.927890 -1.588074 176 149 119
0.940628 2.049088 -2.686879 209 212 231
0.940628 2.049088 -2.686879 209 212 231
0.377894 1.653774 -1.968705 149 165 202
0.885677 1.881752 -1.934208 129 143 183
0.902837 1.888045 -1.927560 123 127 159
0.737629 1.756615 -1.933075 213 102 68
0.704319 1.749044 -1.923499 243 103 79
0.517283 1.722566 -1.937376 236 129 80
0.707732 1.744126 -1.918746 142 55 64
0.689762 1.747072 -1.921497 204 69 57
0.614754 1.743118 -1.925233 255 121 94
0.418209 1.712669 -1.941053 51 101 159
0.720222 1.769452 -1.909840 163 87 129
0.720653 1.771029 -1.909684 163 87 129
0.607976 1.752997 -1.918906 242 106 89
0.953851 1.914027 -1.883614 130 141 173
0.771072 1.824993 -1.893287 212 104 92
0.290139 1.677302 -1.931381 62 88 139
0.750805 1.805983 -1.886830 167 39 44
0.662312 1.767315 -1.887620 255 151 140
0.862676 1.869545 -1.871106 145 141 166
0.613297 1.767107 -1.886770 255 151 145
0.500471 1.737758 -1.892056 126 66 91
0.811141 1.849429 -1.866989 254 176 153
0.520912 1.776429 -1.888044 101 106 135
0.652116 1.774258 -1.872182 255 149 136
0.682658 1.782825 -1.868414 252 108 75
0.803018 1.850861 -1.859462 255 154 131
0.575195 1.756939 -1.876139 253 139 120
0.727175 1.808191 -1.860035 239 92 76
0.830502 1.877597 -1.843503 132 62 63
0.510843 1.749032 -1.867069 62 52 94
0.503969 1.751172 -1.865278 87 49 78
0.477754 1.741425 -1.861987 75 87 131
0.956695 1.901232 -1.818662 253 162 159
0.933558 1.900093 -1.819948 237 157 155
0.776648 1.840347 -1.831762 227 106 82
0.552244 1.749048 -1.849154 247 96 79
0.731495 1.823827 -1.832081 249 173 138
0.576819 1.754115 -1.842023 247 83 61
0.555107 1.748605 -1.842149 254 145 128
0.720682 1.812663 -1.825640 255 181 144
0.722350 1.814544 -1.820300 255 192 150
0.615589 1.769799 -1.828201 255 174 120
0.242557 1.694598 -1.860261 67 70 103
0.713060 1.799440 -1.815645 249 138 111
0.611850 1.761402 -1.822799 255 168 135
0.938128 1.922752 -1.794399 242 159 103
0.918418 1.924363 -1.795231 244 130 104
0.785720 1.852251 -1.801406 180 75 48
0.546136 1.749315 -1.801882 55 102 154
0.272009 1.703111 -1.826457 103 160 213
0.462169 1.763041 -1.792121 90 21 32
1.030094 1.968548 -1.740703 128 126 160
0.686033 1.778944 -1.764334 155 205 248
0.526563 1.746770 -1.770661 125 79 115
0.474599 1.767615 -1.759949 182 55 46
0.527133 1.748958 -1.748321 200 102 75
0.652666 1.778750 -1.730209 154 204 253
0.499134 1.763125 -1.744322 133 37 8
0.469766 1.770394 -1.747201 171 53 31
0.947928 2.013803 -1.700256 44 62 92
1.023851 1.990111 -1.681749 46 83 118
0.417970 1.814806 -1.736744 211 162 129
0.946876 1.991632 -1.685396 90 144 195
0.443331 1.786595 -1.728007 214 121 87
0.207556 1.698319 -1.748621 204 129 103
0.959395 2.035046 -1.669906 195 172 182
0.203199 1.665701 -1.726365 218 139 109
0.253569 1.677108 -1.693702 198 149 145
0.253504 1.677635 -1.693656 198 149 145
0.203287 1.665846 -1.698256 156 157 192
0.634900 1.729953 -1.634186 64 99 129
0.813524 2.006283 -1.609737 153 226 246
0.265087 1.705323 -1.653703 193 178 180
0.689149 1.720079 -1.603919 126 100 103
0.621731 1.716949 -1.606899 212 125 59
0.559672 1.696017 -1.612658 29 31 40
0.602353 1.694138 -1.538636 255 164 153
0.917804 1.860128 -1.365496 180 244 254
0.914422 1.849631 -1.362323 190 249 255
0.543918 1.734431 -1.263513 146 161 158
0.543918 1.734431 -1.263513 146 161 158
0.155759 2.280243 -2.507583 26 35 41
0.349357 2.186146 -2.683917 115 33 18
0.482971 1.628297 -2.046626 81 137 186
0.378343 2.349214 -2.636336 161 135 138
0.942074 1.945462 -1.779497 57 51 63
0.404250 1.765560 -1.868829 83 135 182
0.316074 2.113059 -2.255791 204 220 233
0.809959 1.866902 -1.801915 252 167 120
0.648081 1.767904 -1.062030 182 62 49
0.675237 1.717921 -1.518565 206 73 56
0.295104 1.698869 -1.685910 108 161 206
0.936167 1.981856 -1.674420 20 46 79
0.613075 1.747779 -1.088628 252 140 139
0.967561 2.347533 -2.595396 136 48 26
0.197703 2.231671 -2.504556 105 127 145
0.159711 2.196898 -2.445944 33 42 41
0.251232 1.684725 -1.890278 31 56 86
1.022314 1.946722 -1.807301 190 211 232
0.391865 1.795114 -1.565946 131 97 69
0.631233 1.773113 -1.085524 20 32 48
0.631351 1.772342 -1.085577 20 32 48
0.562902 1.769492 -1.072773 41 75 113
0.365130 2.230772 -2.672081 107 33 20
0.275324 2.356546 -2.638473 152 108 105
0.928548 1.861103 -1.996436 238 184 115
0.459880 1.770715 -1.811994 6 14 23
0.776080 1.857242 -1.791135 11 16 27
0.492303 1.811271 -1.570217 135 108 81
0.936496 2.004711 -2.690182 126 91 88
0.320836 2.034532 -2.723739 111 61 54
0.699203 1.672445 -2.006084 55 96 138
0.447391 1.759377 -1.885417 91 142 189
0.857221 1.861664 -1.880419 103 137 174
0.347281 1.727799 -1.857701 58 110 160
0.359653 1.749574 -1.820315 100 152 200
0.445786 1.771834 -1.813862 91 133 181
0.699241 1.807454 -1.780701 51 94 145
0.401168 1.775065 -1.784785 40 81 130
0.435114 1.772661 -1.776836 217 86 68
0.619215 1.753045 -1.720811 72 123 176
0.594854 1.764642 -1.093893 98 10 6
0.640611 1.772616 -1.079442 20 14 14
0.634017 1.781883 -1.071209 240 129 125
0.723555 1.918711 -2.731016 119 42 24
0.929710 2.057611 -2.677156 147 124 134
0.248599 2.143621 -2.699029 137 89 87
0.591517 1.645495 -2.023273 226 157 128
0.675077 1.638143 -2.015505 64 102 147
0.675077 1.638143 -2.015505 64 102 147
0.471158 1.642426 -2.001708 57 102 149
0.877036 1.833832 -1.998389 72 114 164
0.382489 1.642948 -1.986102 47 93 143
0.932814 1.864766 -1.968568 246 175 151
0.932814 1.864766 -1.968568 246 175 151
0.397482 1.675797 -1.958120 99 152 202
0.635728 1.712224 -1.953577 47 38 64
0.635728 1.712224 -1.953577 47 38 64
0.407961 1.689045 -1.955513 41 89 138
0.619780 1.729818 -1.942728 66 17 17
0.249396 1.686161 -1.907918 71 118 164
0.691747 1.768966 -1.898739 255 119 105
0.276356 1.695482 -1.877425 69 113 161
0.842751 1.878374 -1.830360 99 123 164
0.681645 1.813766 -1.824781 131 169 212
0.647575 1.787879 -1.820799 70 106 152
0.508630 1.753987 -1.814152 186 47 33
0.731067 1.851858 -1.742546 87 142 196
0.200326 1.661639 -1.683162 36 52 74
0.184088 1.656622 -1.630110 201 210 196
0.589386 1.780551 -1.460849 225 244 255
0.580001 1.757891 -1.088042 145 54 29
0.828547 1.848983 -2.742335 184 181 192
0.358522 2.235317 -2.669222 122 66 64
0.577362 2.080981 -2.356129 169 178 187
0.680437 1.647933 -2.009804 208 138 112
0.722828 1.710802 -1.954965 173 32 21
0.504180 1.698813 -1.954764 18 21 29
0.504995 1.736658 -1.893848 249 129 113
0.697462 1.793447 -1.867890 221 51 32
0.794741 1.844374 -1.861467 246 115 89
0.615684 1.776166 -1.845437 60 62 86
0.523648 1.751612 -1.764605 36 63 100
0.496191 1.785236 -1.428423 55 59 84
0.504294 1.727489 -1.310191 120 190 190
0.894631 1.840379 -2.008497 124 175 217
0.724202 1.737299 -1.938605 190 62 45
0.259147 1.683588 -1.926407 42 83 138
0.571106 1.748278 -1.909286 138 62 84
0.571113 1.748161 -1.909302 138 62 84
0.647838 1.780089 -1.845528 239 101 78
0.524605 1.754810 -1.814108 251 114 87
0.735608 1.843166 -1.751720 129 173 214
0.728756 1.714895 -1.593645 251 205 119
0.683317 1.870621 -1.405487 183 191 193
0.467798 1.799212 -1.297635 88 93 88
0.549534 1.715207 -1.254247 9 79 77
0.439475 1.655885 -1.982968 51 81 125
0.602145 1.702205 -1.953662 213 103 50
0.652914 1.763334 -1.903306 226 67 43
0.609139 1.765252 -1.891585 254 123 112
0.562627 1.752322 -1.887185 225 70 58
0.701757 1.808540 -1.839224 227 90 72
0.738695 1.845129 -1.755382 73 132 179
0.511698 1.753137 -1.753842 170 60 33
0.635372 1.763149 -1.687924 81 129 178
0.625921 1.734873 -1.570363 243 120 99
0.649296 1.762130 -1.495249 209 207 202
0.649296 1.762130 -1.495249 209 207 202
0.507965 1.732015 -1.311531 126 129 117
0.557344 1.745318 -1.276350 55 160 156
0.580262 1.743080 -1.273631 21 74 76
0.411959 1.807519 -1.240119 46 85 80
0.443992 1.754465 -1.229772 15 55 47
0.526106 1.707519 -1.957683 79 75 98
0.799559 1.837936 -1.892820 240 141 124
0.527191 1.749711 -1.889719 224 105 76
0.618822 1.773352 -1.840639 215 81 62
0.815153 1.861433 -1.828291 233 102 74
0.229259 1.680631 -1.781484 70 85 118
0.215942 1.674145 -1.750252 190 114 80
0.946787 1.989289 -1.692497 62 108 158
0.599544 1.690839 -1.630646 88 94 110
0.141248 1.626031 -1.640816 151 119 93
0.642765 1.749496 -1.590071 47 73 86
0.629008 1.721996 -1.542861 242 120 89
0.537224 1.776343 -1.363057 170 151 137
0.545214 1.771441 -1.359020 175 107 108
0.207695 1.664070 -1.720110 224 169 157
0.349322 2.312705 -2.648727 109 32 16
0.969385 2.374792 -2.586326 145 51 26
0.478924 1.631016 -2.033020 89 147 197
1.006303 2.228139 -2.625031 131 53 30
1.387435 1.615916 -2.830248 102 75 46
0.374823 2.355620 -2.628098 139 77 69
0.577065 1.608731 -2.150279 128 96 58
0.368178 1.910016 -2.760716 190 189 203
0.226660 2.252066 -2.384020 205 227 240
0.857239 1.759611 -2.049054 228 246 255
0.366956 1.634239 -2.033386 226 244 254
0.223066 1.681641 -1.935889 226 246 255
0.223066 1.681641 -1.935889 226 246 255
0.659126 1.730290 -1.560403 113 21 10
0.532903 1.744753 -1.303900 207 228 229
0.334387 2.396057 -2.626555 184 178 190
0.334193 2.397216 -2.626748 184 178 190
0.587131 1.623399 -2.097702 237 250 255
0.538411 1.616088 -2.095027 220 242 255
0.580577 1.632452 -2.028029 153 161 183
0.580577 1.632452 -2.028029 153 161 183
0.510464 1.667195 -1.982147 31 42 64
0.510359 1.668005 -1.982350 31 42 64
0.673879 1.735517 -1.940686 14 14 22
0.503625 1.714968 -1.931807 247 136 101
0.701767 1.773787 -1.904902 235 92 68
0.240214 1.684297 -1.889562 58 106 154
0.833923 1.852045 -1.872376 238 142 95
0.774293 1.836679 -1.862563 252 145 127
0.390398 1.741465 -1.856058 101 153 200
0.768065 1.828417 -1.818772 36 69 114
0.670329 1.776909 -1.748765 151 195 232
0.970805 1.999084 -1.671061 196 170 169
0.623703 1.808260 -1.468965 90 125 172
0.806067 1.934555 -2.720160 111 39 24
0.241370 2.107952 -2.709773 187 187 199
0.207766 2.226549 -2.442965 217 240 254
0.308070 2.090033 -2.210309 156 121 101
0.614490 1.631059 -2.058985 43 77 122
0.481527 1.641636 -2.008650 98 144 184
0.268196 1.643493 -1.967756 203 224 241
0.268044 1.680686 -1.936811 55 80 109
0.480601 1.736827 -1.896748 11 20 39
0.442364 1.754905 -1.858297 14 30 53
0.913268 1.920849 -1.852084 105 153 199
0.497554 1.751248 -1.841228 242 158 122
0.497594 1.751290 -1.841210 242 158 122
0.766536 1.839324 -1.822103 28 52 92
0.895846 1.922978 -1.801827 13 27 46
0.895953 1.924644 -1.801700 13 27 46
0.272519 1.709359 -1.798496 101 153 203
0.982867 1.954311 -1.763559 38 73 111
0.888131 2.017150 -1.690212 13 24 43
0.561161 1.694073 -1.588850 11 18 26
0.585382 1.702792 -1.530906 242 138 131
0.463194 1.788736 -1.525933 79 117 164
0.512627 1.741199 -1.465492 18 31 47
0.536796 1.765702 -1.345605 177 117 121
0.861150 1.917595 -2.721489 100 76 81
0.199985 2.227473 -2.476362 54 74 85
0.548544 1.633752 -2.011957 104 117 156
0.434143 1.644385 -1.992514 57 89 133
0.819956 1.858437 -1.869609 253 166 130
0.655250 1.777042 -1.864397 253 129 109
0.409154 1.770054 -1.825119 23 49 84
0.441467 1.764776 -1.820643 80 128 176
0.252230 1.695252 -1.817473 42 76 121
0.639478 1.777579 -1.774557 28 47 82
1.017248 1.964043 -1.727283 216 158 147
0.684856 1.802465 -1.721845 66 118 175
0.592654 1.732679 -1.704089 100 150 194
0.830885 1.992550 -1.653172 89 137 185
0.712077 1.760466 -1.521872 255 166 161
0.614406 1.806751 -1.433242 224 240 239
0.361354 1.931705 -1.203272 13 44 44
0.353453 1.914247 -1.181030 144 153 152
0.390434 1.879809 -1.161976 21 61 61
0.911737 1.998883 -2.694114 190 191 209
0.308648 2.166153 -2.690902 105 29 16
0.382585 2.257586 -2.659336 134 95 95
0.422424 2.297143 -2.648242 142 123 127
0.464536 2.454210 -2.604831 139 46 23
0.780032 1.664276 -2.087179 235 250 255
0.580901 1.605956 -2.053462 96 153 196
0.680063 1.687294 -1.984964 83 131 180
0.540280 1.684112 -1.973238 76 119 172
0.896806 1.846021 -1.972895 254 166 121
0.450336 1.713191 -1.958316 51 98 150
0.551125 1.721081 -1.949004 24 23 39
0.401863 1.693116 -1.941135 95 153 203
0.401863 1.693116 -1.941135 95 153 203
1.170360 2.169008 -1.934989 164 164 90
0.413823 1.758217 -1.888029 47 86 125
0.704244 1.815866 -1.811801 25 43 79
0.307622 1.720765 -1.815418 29 66 111
0.307219 1.732218 -1.815977 29 66 111
0.672527 1.796627 -1.785193 43 67 111
0.481529 1.761859 -1.787670 14 13 19
0.482464 1.757525 -1.787180 14 13 19
1.000422 1.951573 -1.780542 224 179 177
0.565591 1.753808 -1.782128 14 29 50
0.587459 1.757675 -1.774259 101 153 203
0.587264 1.758172 -1.774365 101 153 203
0.759418 1.853729 -1.774942 105 159 206
0.575342 1.755958 -1.735247 18 39 65
0.658184 1.738446 -1.619552 42 80 122
0.172548 1.643043 -1.629979 58 90 116
0.172216 1.643076 -1.630034 58 90 116
0.406483 1.754866 -1.611654 85 131 180
0.651594 1.762813 -1.591748 22 44 67
0.651594 1.762813 -1.591748 22 44 67
0.580277 1.680888 -1.575665 220 124 71
0.704338 1.720772 -1.562527 254 182 159
0.554802 1.775441 -1.366197 195 200 194
0.825299 1.818457 -1.320086 5 75 71
0.825299 1.818457 -1.320086 5 75 71
0.506159 1.757694 -1.324836 124 109 86
0.511779 1.915567 -2.745309 189 192 206
0.408178 2.463813 -2.602377 181 150 155
0.440705 2.484157 -2.593972 170 144 147
0.466519 2.509332 -2.586326 180 148 151
0.560261 1.620550 -2.098350 158 170 182
0.246519 2.183850 -2.196347 128 86 48
0.494478 1.639362 -2.094639 156 166 178
0.510833 1.630421 -2.076843 177 195 215
0.390292 1.632934 -2.040304 170 193 213
0.563971 1.638596 -2.002254 50 73 107
0.563971 1.638596 -2.002254 50 73 107
0.577718 1.671175 -1.989432 86 138 190
0.661056 1.685222 -1.979701 54 82 122
0.403297 1.669510 -1.966084 43 86 137
0.592648 1.732144 -1.931609 13 12 19
0.593483 1.736129 -1.932216 13 12 19
0.957531 1.909562 -1.895882 70 121 169
0.494414 1.753647 -1.878116 67 111 160
0.743563 1.808588 -1.874358 19 22 36
0.518706 1.769026 -1.872404 17 25 39
0.838611 1.868535 -1.848843 243 176 121
0.987019 1.926516 -1.846304 87 130 179
0.881462 1.904990 -1.827610 96 145 189
0.467441 1.764262 -1.821066 8 15 22
0.468226 1.756371 -1.820740 8 15 22
0.581356 1.752299 -1.802319 255 175 146
0.907173 1.937947 -1.777335 20 27 42
0.774234 1.878066 -1.764542 122 172 217
1.045146 1.980229 -1.716259 62 92 117
0.663700 1.784429 -1.709385 63 110 164
0.663528 1.784343 -1.709394 63 110 164
0.527736 1.762107 -1.711663 121 156 196
0.545574 1.760171 -1.707326 26 53 87
0.581154 1.696166 -1.631914 38 56 83
0.669670 1.744739 -1.596829 104 144 180
0.693323 1.717593 -1.574912 131 28 11
0.670286 1.716322 -1.542728 199 73 51
0.643924 1.732245 -1.531653 241 143 144
0.631516 1.759747 -1.494976 41 74 107
0.631412 1.754109 -1.495596 41 74 107
0.594303 1.731955 -1.298697 124 145 104
0.550383 1.723779 -1.264113 9 53 52
0.451570 1.756912 -1.249031 8 34 21
0.622404 1.778698 -1.122457 2 22 20
0.933674 2.092753 -2.669283 189 188 203
0.173633 2.212350 -2.472670 72 92 109
0.600480 2.067729 -2.350266 204 223 239
0.503876 1.633038 -2.111023 167 181 192
0.519790 1.623479 -2.091774 150 160 170
0.789766 1.668061 -2.070585 195 216 233
0.789766 1.668061 -2.070585 195 216 233
0.700991 1.636358 -2.038926 87 146 196
0.643685 1.683610 -1.979084 119 138 172
0.742605 1.708100 -1.956298 219 143 66
0.251148 1.643921 -1.965373 211 230 245
0.881933 1.847022 -1.958842 27 26 35
0.611788 1.730620 -1.936777 255 114 90
0.636825 1.749209 -1.926009 255 127 122
0.715167 1.753372 -1.919612 158 47 63
0.663407 1.758654 -1.910023 17 5 9
0.663560 1.759142 -1.910770 17 5 9
0.649977 1.762160 -1.912068 244 91 68
0.506303 1.741705 -1.902482 250 130 121
0.506464 1.740548 -1.902295 250 130 121
0.812868 1.839854 -1.897891 43 28 47
0.812733 1.841191 -1.896766 43 28 47
0.556230 1.749731 -1.885714 209 49 39
0.307641 1.707526 -1.891265 99 151 198
0.638494 1.773806 -1.873192 208 53 36
0.882452 1.890010 -1.876016 105 156 203
0.367227 1.732125 -1.871353 106 160 207
0.466669 1.756872 -1.867178 66 114 166
0.749315 1.814628 -1.862049 255 134 119
0.498006 1.749105 -1.857469 28 40 62
0.361627 1.732602 -1.860966 64 117 167
0.510655 1.751718 -1.856170 244 170 119
0.458556 1.757502 -1.850141 49 82 128
0.824799 1.886918 -1.847405 26 33 44
0.950223 1.921358 -1.837852 63 111 159
0.584009 1.753618 -1.828955 236 65 42
0.766067 1.845772 -1.830384 24 23 37
0.657139 1.789102 -1.828057 24 21 33
0.657139 1.789102 -1.828057 24 21 33
1.001566 1.948617 -1.822068 87 124 169
0.294913 1.721703 -1.825042 81 139 188
0.943818 1.903687 -1.816591 151 48 57
0.745303 1.846712 -1.819048 35 66 113
0.184691 1.696380 -1.823654 210 235 255
0.610320 1.760068 -1.812408 249 169 116
0.459880 1.770715 -1.811994 6 15 22
0.907231 1.920930 -1.805387 12 19 27
0.739352 1.832065 -1.798508 119 170 211
0.606024 1.766730 -1.788062 82 125 176
0.762692 1.859110 -1.785353 96 148 196
0.413092 1.775843 -1.788910 80 128 175
1.032831 1.958216 -1.777678 169 186 204
0.443132 1.768305 -1.785927 11 15 27
0.709284 1.817960 -1.772234 137 180 223
1.029649 1.963255 -1.760697 63 98 140
0.649545 1.773734 -1.752095 123 171 212
0.768210 1.868526 -1.749267 76 131 181
1.053083 1.975634 -1.729417 164 173 180
0.626036 1.758334 -1.707428 136 179 221
0.637951 1.762435 -1.703905 53 101 150
0.172695 1.641650 -1.663176 36 53 68
0.386677 1.742744 -1.650058 57 103 153
0.634602 1.743512 -1.594944 34 67 105
0.741022 1.722872 -1.577227 246 193 117
0.639625 1.749781 -1.578312 216 225 215
0.716836 1.743392 -1.548807 37 57 101
0.675597 1.721911 -1.526879 166 45 34
0.624801 1.747343 -1.507927 219 234 253
0.643997 1.769948 -1.484931 203 225 239
0.596804 1.787422 -1.454500 65 114 155
0.597225 1.788755 -1.454401 65 114 155
0.526207 1.759496 -1.343297 150 68 74
0.439041 1.852694 -1.316696 67 92 62
0.567111 1.745562 -1.282918 169 183 127
0.565355 1.732304 -1.273358 28 110 108
0.577694 1.732945 -1.251040 10 21 16
0.577694 1.732945 -1.251040 10 21 16
0.391289 1.881721 -1.175074 38 90 88
0.521315 1.705839 -1.184325 66 177 187
0.630547 1.758340 -1.110695 39 131 139
0.732467 1.803211 -2.760171 192 182 193
0.392770 1.977660 -2.738973 91 28 11
0.392770 1.977660 -2.738973 91 28 11
0.318779 2.022533 -2.731492 191 189 202
0.298553 2.134736 -2.700453 181 174 181
0.572209 2.054806 -2.628413 80 97 113
0.581877 2.064356 -2.618998 41 61 69
0.382297 2.324458 -2.643291 107 35 18
0.257330 2.347663 -2.643400 137 40 21
0.264445 2.118515 -2.224428 133 125 119
0.472619 1.634072 -2.035594 122 166 213
0.494000 1.639181 -2.029662 41 72 115
0.529369 1.629278 -2.011502 39 54 77
0.810209 1.724014 -2.010007 85 135 184
0.622635 1.680208 -1.973492 45 44 74
0.694878 1.714959 -1.973345 62 84 121
0.926954 1.857553 -1.975937 233 244 254
0.293559 1.615637 -1.968357 155 162 172
0.582991 1.686424 -1.963369 15 14 19
0.671699 1.734942 -1.962847 30 33 47
0.513574 1.695088 -1.962793 240 186 112
0.714671 1.710619 -1.956655 253 143 108
0.907716 1.850869 -1.958483 255 164 133
0.866597 1.858273 -1.961559 192 118 108
0.535060 1.711714 -1.951050 237 134 95
0.580513 1.712600 -1.947262 15 17 28
0.703022 1.735922 -1.942402 221 83 57
0.633691 1.729039 -1.942358 254 118 96
0.491267 1.697448 -1.943518 13 20 30
0.491510 1.698077 -1.943368 13 20 30
0.642169 1.747401 -1.935496 39 39 65
0.726418 1.752982 -1.927841 253 156 122
0.661691 1.748006 -1.930448 30 35 64
0.520422 1.740498 -1.920005 205 64 49
0.587796 1.752208 -1.912758 19 17 29
0.587958 1.754166 -1.912701 19 17 29
0.487767 1.723942 -1.913541 249 136 117
0.298369 1.688464 -1.915388 224 181 177
0.519376 1.742521 -1.901914 20 18 32
0.525465 1.746080 -1.893337 231 105 83
0.525145 1.747962 -1.893294 231 105 83
0.924039 1.898121 -1.892595 229 181 171
0.688484 1.780253 -1.881140 255 111 85
0.236722 1.689580 -1.886110 63 111 160
0.365369 1.730338 -1.882388 58 112 172
0.832811 1.857393 -1.876728 232 120 78
0.832105 1.853216 -1.876796 232 120 78
0.803020 1.851091 -1.866373 255 139 124
0.342014 1.717074 -1.864307 105 156 201
0.400420 1.760046 -1.862085 60 115 171
0.752155 1.822445 -1.850715 179 35 25
0.954525 1.920902 -1.850105 222 172 159
0.744431 1.823788 -1.845346 255 147 137
0.776870 1.847416 -1.833887 238 116 93
0.981589 1.933026 -1.833028 234 186 181
0.473542 1.752171 -1.833411 200 123 53
0.473725 1.752281 -1.833220 200 123 53
0.829209 1.871801 -1.829275 252 179 126
0.598888 1.759903 -1.827312 222 63 38
0.571084 1.748409 -1.827809 254 141 125
0.553135 1.749298 -1.825684 254 126 111
0.453375 1.765675 -1.829836 98 140 190
0.237306 1.698335 -1.829980 221 130 98
0.331223 1.727907 -1.821817 67 117 168
0.687971 1.813666 -1.814532 102 151 193
0.928132 1.952602 -2.706301 127 78 73
0.157979 2.269585 -2.406525 15 5 4
0.486269 1.669681 -1.987746 69 99 139
0.281119 2.085740 -2.712884 158 127 129
0.158772 2.269908 -2.406561 15 5 4
0.584805 1.761961 -1.872465 247 132 130
0.586202 1.616238 -2.058804 187 215 244
0.233240 2.268451 -2.311405 186 181 188
0.141742 1.638585 -1.636856 209 220 216
0.665018 1.647447 -2.006224 66 104 149
0.281853 2.106483 -2.255228 142 131 138
0.562697 1.386377 -2.944663 129 104 84
0.671816 1.651488 -2.005682 68 108 151
0.118026 2.312501 -1.561980 130 146 103
1.195909 0.921603 -3.025509 123 89 53
0.535521 1.634890 -1.999851 54 87 124
0.138481 1.665973 -1.659764 16 9 10
0.372037 2.080745 -2.709739 182 169 178
0.903527 1.845160 -1.990860 254 195 122
0.898485 1.959026 -2.700142 174 142 154
0.430470 1.660460 -1.980747 55 92 139
0.435546 1.776819 -1.250998 14 40 31
0.924593 1.961529 -2.705220 178 143 146
0.385132 1.660703 -1.958079 112 153 192
0.435759 1.776823 -1.250700 14 40 31
0.572387 1.598196 -2.066533 106 142 178
0.636334 1.741223 -1.935538 255 117 100
0.582815 1.759802 -1.087218 124 48 33
0.354737 1.633018 -1.987979 56 77 106
0.523518 1.726066 -1.933854 199 89 54
0.340496 1.960012 -2.744811 193 175 182
0.259727 1.679381 -1.937589 26 45 72
0.531884 1.732015 -1.928378 70 67 100
0.399467 1.884696 -2.761753 148 85 73
0.145374 1.684463 -1.827125 153 144 134
0.862063 1.854286 -1.898593 126 129 162
0.254468 2.219772 -2.681356 115 65 57
0.696255 1.781012 -1.879748 219 80 75
0.624505 1.765950 -1.897464 216 57 38
0.373717 2.073468 -2.711820 85 31 28
0.202532 1.678445 -1.790775 101 115 148
0.712754 1.786824 -1.888244 220 78 56
0.277792 2.298295 -2.657700 97 31 29
0.230448 1.680198 -1.785026 80 106 136
0.688414 1.775527 -1.886868 255 120 111
0.564387 2.096036 -2.700954 163 10 8
0.513543 1.758059 -1.734812 23 33 40
0.676193 1.775002 -1.883526 211 57 45
0.387011 2.420563 -2.616636 169 70 62
0.272797 1.693583 -1.693581 198 201 210
0.690270 1.789775 -1.873518 95 27 21
0.885262 1.956723 -2.708368 194 156 159
0.248017 1.657803 -1.694121 210 215 227
0.630980 1.776136 -1.874179 243 106 87
0.176906 2.209279 -2.478090 152 158 164
0.404748 1.753323 -1.627664 84 120 161
0.601953 1.773507 -1.850925 254 147 121
0.190359 1.796518 -1.841727 123 111 98
0.260503 1.733484 -2.872988 138 112 97
0.833464 1.872526 -1.838046 153 90 82
0.198809 1.762092 -1.800336 133 81 65
0.569928 1.422119 -2.932220 86 69 51
0.963592 1.940300 -1.824578 106 124 163
0.193667 1.755616 -1.801040 26 25 28
0.970065 1.297986 -2.941153 155 122 95
0.698683 1.807330 -1.823900 247 178 121
0.190339 2.003822 -2.802246 146 55 28
0.346313 1.734818 -1.825415 64 117 171
0.573505 1.746478 -1.814103 214 71 54
0.295168 2.023235 -2.731485 126 80 74
0.543589 1.818733 -2.771403 142 125 137
0.695286 1.808259 -1.771260 147 188 227
0.337541 1.953533 -2.748975 188 175 182
0.254650 2.203522 -2.684044 196 176 180
0.521472 1.747079 -1.769803 247 122 100
0.243507 2.219730 -2.680237 112 66 60
0.807003 1.873864 -2.734833 191 176 180
0.778421 1.880137 -1.752555 125 169 214
0.333497 2.131399 -2.700019 78 28 21
0.233159 1.701934 -1.857011 162 99 94
0.533340 1.746617 -1.748683 253 157 129
0.471715 1.918305 -2.745928 147 86 74
0.522889 1.761585 -1.727148 58 87 127
0.315661 2.384465 -2.633217 127 78 72
0.521751 1.749236 -1.340832 150 69 78
0.630418 1.747259 -1.591494 57 52 66
0.321754 2.375752 -2.634847 126 68 60
1.228273 1.538303 -2.859910 173 156 138
0.575479 1.681109 -1.588282 196 101 55
0.662299 1.842955 -2.754920 149 90 86
0.210307 2.301003 -2.485331 68 84 97
0.623065 1.773106 -1.481551 184 221 240
0.734729 1.914689 -2.730083 196 175 187
0.322633 1.682718 -1.934475 167 114 114
0.529467 1.780890 -1.420743 216 170 141
0.802594 1.870845 -2.736861 178 122 123
0.316751 1.691564 -1.927220 57 90 128
0.574668 1.737415 -1.261326 17 87 91
0.544401 2.082441 -2.615776 116 107 100
0.222404 1.699367 -1.845495 157 101 93
0.603649 1.744194 -1.096684 211 78 63
0.303705 2.097593 -2.247046 175 165 167
0.991218 2.075996 -2.668257 179 154 157
0.274473 2.106890 -2.236586 130 113 113
0.753306 1.868733 -2.747442 138 93 94
0.656157 1.643276 -2.007267 62 96 135
0.525023 1.707981 -1.178574 152 187 201
0.668494 1.804938 -2.750328 133 82 77
0.757938 1.689435 -1.989484 67 102 141
0.056698 1.948494 -2.831709 127 101 81
0.585896 2.075842 -2.355063 123 133 142
0.932414 1.849119 -2.000893 224 202 183
-0.038521 2.265331 -2.749805 97 63 43
0.998333 1.925845 -1.874682 172 188 204
0.904156 1.850727 -1.953435 255 157 125
0.192755 2.000139 -2.804511 82 8 0
0.707260 1.734974 -1.936674 220 68 47
0.386203 1.792297 -2.817600 181 107 103
0.532329 1.722904 -1.941437 111 60 75
0.293048 2.039249 -2.726017 198 182 182
0.254761 2.161260 -2.271330 111 104 95
0.649557 1.742048 -1.938619 91 43 77
0.271166 2.092792 -2.713085 101 37 33
0.254761 2.161260 -2.271330 111 104 95
0.255605 1.680693 -1.929669 107 141 187
0.258334 2.132264 -2.706017 187 159 169
0.287359 2.227550 -2.049290 134 120 59
0.653836 1.749712 -1.923080 175 32 27
0.315669 2.243128 -2.671917 166 140 151
0.544461 1.639343 -2.050385 33 50 75
0.280819 1.677327 -1.925948 69 93 131
0.540129 1.811801 -2.772850 210 197 199
0.175650 2.261830 -2.388690 77 14 5
0.718001 1.763646 -1.913096 233 109 92
0.326823 2.245939 -2.668151 172 157 158
0.472269 1.740892 -1.927073 11 18 24
0.677378 1.763532 -1.906449 204 54 40
0.306788 2.311032 -2.654140 182 153 150
0.472269 1.740892 -1.927073 11 18 24
0.653040 1.762437 -1.903363 227 61 43
0.306788 2.311032 -2.654140 182 153 150
0.836547 1.882836 -1.853868 203 115 95
0.638193 1.762965 -1.903280 242 90 69
0.688788 1.807056 -2.763034 160 91 91
0.836547 1.882836 -1.853868 203 115 95
0.645084 1.766279 -1.892581 229 78 61
0.513967 1.747295 -1.890983 225 113 90
0.398385 2.459687 -2.604534 147 96 90
0.593385 1.768863 -1.875520 252 131 102
10.439157 10.368580 -1.168531 85 95 96
0.751021 1.811543 -1.866841 252 132 118
0.867221 1.900817 -2.723400 204 165 169
0.548580 1.758929 -1.304633 198 210 210
0.513788 1.750394 -1.863212 52 44 71
0.623863 2.051201 -2.628312 190 184 190
0.622079 1.779689 -1.853514 241 140 95
0.901965 1.961796 -2.714295 138 99 101
0.706172 1.809280 -1.839130 223 74 52
0.168826 2.273921 -2.379545 12 11 6
0.148573 2.337578 -2.057719 117 97 56
0.710312 1.808675 -1.838162 249 131 108
0.260566 1.872769 -1.870404 26 27 27
0.434963 1.615150 -2.055079 203 222 239
0.671898 1.789535 -1.837580 254 174 133
0.058379 2.401852 -1.708806 114 112 70
0.421546 1.852249 -1.332387 88 110 89
0.773917 1.842560 -1.828486 232 130 98
0.539452 1.754780 -1.334158 191 171 170
0.859762 1.794470 -2.843587 103 55 32
0.773916 1.842348 -1.828447 232 130 98
0.481539 1.767800 -1.261333 60 41 33
0.932488 1.927434 -2.841529 230 170 159
0.930043 1.905501 -1.820404 118 55 76
-0.033686 2.265796 -2.748267 122 91 63
0.935130 1.890302 -2.732399 144 59 41
0.197095 1.695604 -1.826596 93 137 182
0.223313 2.135412 -2.706330 202 178 178
0.420115 1.781506 -1.781883 47 51 77
0.253487 2.135524 -2.704564 187 161 167
0.588100 2.096097 -2.602704 191 213 227
0.471283 1.758036 -1.774606 172 42 35
0.204758 2.213738 -2.477828 46 59 68
0.528360 1.748702 -1.754833 224 87 72
0.390263 1.961541 -2.742014 236 214 216
0.378132 1.648850 -2.029229 211 229 249
0.650917 1.764883 -1.737391 72 128 174
0.317961 1.620312 -1.981105 208 226 246
0.654284 1.770657 -1.736622 136 180 222
0.371282 2.042161 -2.722932 182 160 169
0.318580 1.621957 -1.981577 208 226 246
0.478875 1.788901 -1.733272 47 34 48
0.271411 2.317111 -2.653908 189 149 144
0.200042 1.691381 -1.902337 206 226 250
0.154310 1.619394 -1.641619 236 183 171
0.271411 2.317111 -2.653908 189 149 144
0.283083 1.684439 -1.908185 125 166 199
0.706963 1.720714 -1.582428 221 130 62
0.263439 2.307482 -2.635995 193 158 157
0.665790 1.730901 -1.940799 17 20 29
0.737184 1.727975 -1.567306 237 155 112
0.263439 2.307482 -2.635995 193 158 157
0.667566 1.733845 -1.940787 17 20 29
0.629813 1.720491 -1.536288 255 148 135
0.305931 2.386244 -2.633551 124 62 40
0.892650 1.925452 -1.800751 11 15 26
0.520926 1.714430 -1.307559 145 205 197
0.661667 1.817552 -2.760982 176 147 152
1.070348 1.959044 -1.721226 193 205 181
0.471941 1.798179 -1.295139 26 49 43
0.168521 3.125528 -2.500830 160 125 95
0.522007 1.752829 -1.350435 158 91 97
0.550811 1.747011 -1.280520 59 119 124
0.588253 2.203660 -2.670398 200 101 103
0.381586 1.913133 -1.225642 26 70 68
0.452707 1.801353 -1.274716 24 46 33
0.717872 1.915687 -2.732777 198 169 177
0.555353 1.772213 -1.113800 77 169 182
0.883111 1.521438 -2.887367 172 156 131
0.170900 2.244982 -2.420991 115 110 114
0.967160 1.294862 -2.942718 131 101 65
0.583256 1.614905 -2.053808 188 222 249
0.167972 2.258940 -2.389663 184 125 91
0.609305 1.880849 -2.749457 131 57 42
0.583263 1.614763 -2.053829 188 222 249
0.593765 1.907670 -2.745326 196 195 209
0.699972 1.622296 -2.047758 123 177 221
0.249460 1.931993 -1.949163 39 37 37
0.686238 1.893016 -2.741041 198 195 214
0.483715 1.642601 -2.020989 98 133 183
0.486989 1.711236 -1.194806 198 232 238
0.237532 2.386585 -2.624192 144 68 45
0.886610 1.834778 -2.015812 122 178 218
0.373442 1.794157 -1.203879 42 68 67
0.800026 1.924939 -2.724562 109 42 33
0.897003 1.835066 -1.982403 228 139 73
0.602558 2.056054 -2.625369 26 31 35
0.536715 1.709454 -1.957080 70 81 119
0.519088 2.484208 -2.596557 198 195 212
0.889971 1.843159 -1.960986 190 71 48
0.903076 2.057468 -2.681518 189 195 215
0.899918 1.853149 -1.956691 226 113 78
0.598028 2.136962 -2.558365 210 231 248
0.649907 1.746621 -1.928423 238 91 73
1.014652 2.138882 -2.649831 197 191 208
0.602645 1.759299 -1.901758 211 66 53
0.206834 2.217549 -2.365589 125 118 114
0.636562 1.765335 -1.898314 215 58 43
0.250100 2.190846 -2.222322 183 191 196
0.167784 2.312395 -2.059360 185 192 202
0.654410 1.773170 -1.877618 255 133 114
0.199146 2.230887 -2.409879 16 20 21
0.523064 1.632456 -2.107542 143 147 156
0.629991 1.775645 -1.869554 216 59 46
0.199146 2.230887 -2.409879 16 20 21
0.538985 1.621031 -2.086858 204 223 241
0.250213 1.688844 -1.869667 68 83 108
0.485086 1.707625 -1.951933 13 13 24
0.252842 1.692501 -1.862491 102 126 161
0.344608 1.645334 -1.593902 16 19 28
0.363733 1.670705 -1.931206 45 73 113
0.539704 1.755188 -1.856244 161 39 34
0.754424 1.899967 -1.359921 187 189 188
0.618988 1.710724 -1.957876 203 112 66
0.537081 1.756058 -1.852618 157 42 37
1.045656 2.103940 -2.660061 0 0 0
0.493722 1.711107 -1.927406 233 158 122
0.244422 1.693898 -1.850569 84 98 133
0.506678 1.760072 -1.475703 22 29 39
0.844100 1.791994 -1.966093 65 16 14
0.248265 1.698672 -1.839686 84 114 156
0.978704 2.002915 -2.671999 155 57 32
0.482247 1.776483 -1.888562 7 17 27
0.530040 1.754213 -1.826061 194 58 44
0.442776 1.763257 -1.860218 11 18 34
0.462285 1.761849 -1.804248 165 49 39
0.194690 1.686637 -1.812654 33 53 86
0.925189 1.932430 -1.777551 208 102 60
0.377015 1.758103 -1.823643 98 139 185
0.637182 1.749824 -1.592003 41 67 90
0.647389 1.732678 -1.549404 100 25 19
0.768307 1.840987 -1.820764 70 89 130
0.595851 1.740638 -1.270796 92 118 82
0.432908 1.785111 -1.753168 181 79 56
0.567802 1.712814 -1.262088 59 183 188
0.800888 1.854917 -1.801214 229 161 126
0.536542 1.727746 -1.257165 115 127 118
0.612774 1.763256 -1.755677 36 53 83
0.536051 1.723821 -1.251384 84 110 105
0.294464 2.122898 -2.282587 111 83 61
0.475525 1.821329 -1.711384 10 14 17
0.686107 1.729278 -1.124810 100 213 223
0.174997 2.335739 -2.109714 129 106 54
0.978368 1.952751 -1.762893 44 73 105
0.489301 1.640259 -2.024443 71 100 131
1.048972 1.970960 -1.754020 129 129 139
0.551101 1.636883 -2.006236 106 123 163
1.012618 1.967513 -1.731253 192 159 170
0.634768 1.775934 -1.836908 230 106 78
0.626899 1.627441 -2.019903 111 106 130
0.551674 1.724028 -1.666115 36 50 77
0.430253 1.772358 -1.784073 71 42 74
0.666037 1.691865 -1.979803 117 127 152
0.437663 1.851337 -1.292484 49 62 43
0.629071 1.753072 -1.596381 117 66 90
0.715718 1.297889 -2.957137 80 58 43
0.645956 1.730937 -1.543606 96 15 6
0.715718 1.297889 -2.957137 80 58 43
0.550227 1.766682 -1.450927 226 226 222
-0.275795 2.514535 -2.693968 136 97 71
0.530795 1.779264 -1.361744 175 154 139
0.176025 2.213932 -2.466418 121 127 143
0.574391 1.778831 -2.771012 136 67 59
0.524415 1.784719 -1.357509 174 156 150
0.504028 1.813707 -1.773414 206 117 120
0.443558 1.759802 -1.785550 7 7 17
0.521473 1.754376 -1.742169 36 27 34
0.425186 2.303992 -2.650114 187 174 191
0.607385 1.627148 -2.140160 166 109 82
0.525167 1.713972 -1.514421 129 143 170
0.754874 1.941564 -2.725039 133 62 50
0.587640 1.622851 -2.097708 236 249 255
0.919641 2.127106 -2.665735 151 92 82
0.382650 1.636778 -2.000337 44 86 136
0.453200 1.776493 -1.887198 87 110 141
0.193661 2.230669 -2.498898 111 133 154
0.376144 1.651648 -1.965348 147 144 173
0.160398 2.251618 -2.387640 94 32 13
0.572157 1.754138 -1.875619 253 118 107
0.186419 1.710532 -1.867620 154 128 127
0.933898 2.121637 -2.661841 161 86 74
0.571829 1.756134 -1.875927 253 118 107
0.115021 1.668230 -1.642103 121 96 73
0.661054 2.102802 -2.368679 169 169 171
0.335438 1.720154 -1.871364 96 144 193
0.132828 2.274030 -2.032250 115 99 48
0.724458 1.636617 -2.039747 59 105 155
0.636138 1.676113 -1.981208 84 107 138
0.594499 1.766239 -1.884926 210 45 38
0.584163 2.129258 -2.584160 31 31 29
0.919811 2.158006 -2.638093 155 73 49
0.704269 1.716875 -1.959622 20 7 7
0.543384 1.751783 -1.873419 172 24 17
0.973482 2.203939 -2.633201 165 129 131
0.721012 1.887766 -2.746007 208 211 230
0.782475 1.843560 -1.840292 79 38 59
0.721007 1.887960 -2.746056 208 211 230
0.149231 1.680642 -1.841235 203 224 243
0.782122 1.843732 -1.840774 79 38 59
0.268335 2.135081 -2.284115 150 141 144
0.219219 1.686339 -1.821061 198 121 96
0.489831 1.751609 -1.881974 91 126 168
0.540092 1.754360 -1.866455 253 128 113
0.296736 2.115088 -2.265470 182 180 193
0.659081 1.718399 -1.560076 127 30 14
0.604878 1.757271 -1.890599 241 127 127
0.564067 1.753603 -1.853695 225 61 45
0.265025 2.113419 -2.223400 121 98 98
0.374964 2.037202 -1.311842 27 81 81
0.677332 1.775934 -1.885177 205 64 54
0.778635 1.847137 -1.824351 60 36 55
0.303764 2.167778 -2.184192 144 118 101
0.874273 1.843974 -1.981979 84 47 49
0.568717 1.757778 -1.866153 255 137 135
0.827236 1.875047 -1.818321 169 124 136
0.320713 2.360087 -2.056920 180 172 118
0.983457 1.925822 -1.913336 241 252 255
0.898705 1.893599 -1.900304 94 133 175
0.603607 1.768940 -1.843574 243 76 49
0.531036 1.629907 -2.120654 153 128 104
0.503758 1.711281 -1.931503 254 154 122
0.327856 1.732720 -1.800297 114 153 192
0.601095 1.763211 -1.837734 255 156 117
0.448568 1.631891 -2.095037 212 215 230
0.535419 1.750877 -1.830855 12 5 5
0.601119 1.763049 -1.837821 255 156 117
0.476871 1.762759 -1.805709 208 95 93
0.905245 1.924082 -1.789276 235 127 105
0.460352 2.055979 -2.034395 142 114 109
0.903867 1.795416 -2.816407 111 65 32
0.561131 1.747807 -1.832137 201 33 24
0.777127 1.862375 -1.792265 46 9 21
0.160430 1.646862 -1.625409 189 204 209
0.546250 1.660381 -2.062484 47 64 83
0.849511 1.705013 -2.082367 160 129 98
0.907922 1.939485 -1.777442 27 30 49
0.885447 1.765253 -2.066847 136 122 108
0.655313 1.780600 -1.864305 255 142 122
0.523216 1.753567 -1.739537 14 13 21
0.698937 1.744576 -1.931007 182 36 23
0.368224 1.635943 -2.025461 201 207 223
0.880949 1.942665 -1.762660 106 168 217
1.008511 1.956147 -1.777737 194 168 181
0.839254 1.853304 -1.888483 243 125 100
0.717893 1.630605 -2.067526 211 217 231
0.998689 2.013495 -1.700732 133 160 177
0.852231 1.866170 -1.881189 140 117 146
0.691051 1.636562 -2.053005 105 130 161
0.330717 1.362100 -2.972501 108 73 41
0.401239 1.755368 -1.608891 96 130 173
1.850508 1.569530 -2.803033 136 115 92
0.528260 1.840057 -1.378733 89 84 78
0.568234 1.747314 -1.897609 213 54 40
0.290996 1.656855 -1.967075 193 194 206
0.463053 1.765041 -1.254201 78 77 60
0.650259 1.774162 -1.881467 254 119 113
0.109656 2.368797 -1.822914 132 108 34
0.292295 1.714033 -1.829220 90 153 207
0.390713 1.883251 -1.175965 38 84 82
0.725970 1.806307 -1.852755 245 105 88
0.651712 1.780775 -1.853697 231 85 64
0.184588 1.693466 -1.879864 211 220 235
0.601375 1.871299 -2.752527 144 63 46
0.720114 1.303585 -2.959936 80 57 41
0.527912 1.757492 -1.862052 215 105 71
0.193762 1.790917 -1.869842 118 95 81
0.785892 1.911994 -2.727262 142 72 54
0.720114 1.303585 -2.959936 80 57 41
0.166096 1.683847 -1.884153 217 235 245
0.174237 1.715439 -1.852799 91 54 48
0.545262 1.935220 -2.754626 137 51 28
0.407286 1.937400 -2.753477 190 183 199
0.577788 1.753554 -1.828539 231 72 48
0.166806 1.693257 -1.842559 218 227 244
0.891944 1.991843 -2.696122 149 74 53
0.670826 1.798059 -2.776325 135 65 55
0.590860 1.704644 -1.587177 255 141 122
0.303855 2.181547 -2.687779 134 60 46
0.595581 1.704466 -1.579056 232 99 71
0.153747 1.694890 -1.799378 101 76 73
1.130308 2.214141 -2.183568 156 126 92
0.358282 2.138484 -2.700475 140 69 49
0.586205 1.612302 -2.058563 198 229 253
0.444509 1.773478 -1.790869 18 24 40
0.746662 1.743700 -1.937686 254 183 129
0.762863 1.690694 -1.987549 95 109 145
0.953198 1.960154 -2.699899 140 69 62
0.714631 1.809292 -1.839257 229 92 76
0.375967 1.637451 -2.055325 167 164 174
0.543210 1.633488 -2.002202 114 134 185
0.503501 1.751313 -1.847574 195 95 43
0.336914 2.135592 -2.002000 137 109 97
0.882437 1.830987 -1.974078 39 9 11
0.929192 2.086659 -2.671517 191 187 206
0.790343 1.851789 -1.815826 206 83 66
0.483150 1.650059 -1.995923 123 147 193
0.790443 1.851707 -1.815909 206 83 66
0.228048 2.139995 -2.696113 131 52 35
0.852052 1.861383 -1.970238 99 121 162
0.934284 2.159937 -2.649722 199 182 197
0.915643 1.923412 -1.798036 198 66 52
0.665105 1.614172 -2.084980 155 157 170
0.955701 2.227005 -2.629962 160 75 50
0.761150 1.752764 -1.959294 132 163 210
0.791282 1.852562 -1.810729 255 151 130
0.665105 1.614172 -2.084980 155 157 170
0.448790 2.352001 -2.612639 157 59 34
0.729263 1.717730 -1.956022 228 129 76
0.814573 1.870739 -1.806959 239 142 89
0.545903 1.637415 -2.051563 74 97 129
1.113220 2.228776 -2.152062 151 125 92
0.707556 1.704153 -1.955789 190 68 59
0.283800 2.149119 -2.182025 132 105 90
0.489074 1.749359 -1.837052 198 102 51
0.627235 1.649719 -2.006383 72 92 121
0.151796 2.368437 -2.129456 192 196 161
0.892613 1.874234 -1.951390 161 95 98
0.387909 1.637434 -2.039932 155 172 190
0.546865 1.766894 -1.779268 125 155 197
0.291076 1.973433 -1.920895 92 70 66
0.673479 1.706115 -1.975163 95 138 189
0.733045 1.721221 -1.951992 239 145 102
0.329402 1.627264 -2.025545 211 228 244
0.268811 1.679556 -1.682909 211 166 169
0.371641 1.675011 -1.939536 103 114 144
0.702185 1.720122 -1.960237 22 19 33
0.625598 1.706746 -1.959352 226 129 68
0.552526 1.627695 -2.014397 119 133 161
0.728394 1.716076 -1.588627 211 154 49
0.206875 1.828794 -1.882476 121 82 77
0.700110 1.750957 -1.921351 255 158 141
0.702710 1.732240 -1.944989 237 111 88
0.502629 1.662534 -1.999532 27 41 68
0.648871 1.727671 -1.519362 249 128 112
0.206875 1.828794 -1.882476 121 82 77
0.607487 1.749164 -1.925069 247 97 74
0.908297 1.858824 -1.991395 148 115 99
0.211935 2.239718 -2.518218 53 57 66
0.606825 1.774965 -1.852222 202 62 39
0.524828 1.612654 -2.081379 197 198 216
0.912748 1.859152 -1.993949 213 222 236
0.442120 2.450386 -2.603038 201 134 130
0.599112 1.773262 -1.853979 238 98 80
0.571143 1.633937 -2.109126 202 204 219
0.764226 1.822636 -2.753238 211 208 223
0.778400 1.685658 -1.997274 105 122 160
0.403217 2.453261 -2.599684 200 188 198
0.804325 1.845953 -1.871755 224 74 55
0.284076 2.304864 -2.044267 147 126 64
0.690348 1.159628 -3.000367 147 103 64
0.646530 1.637626 -2.009124 73 94 134
0.616974 2.052067 -2.644706 158 94 94
0.606307 1.761514 -1.899380 228 74 62
1.069849 1.004649 -3.015944 104 73 44
0.929302 1.847381 -2.003203 238 250 255
0.795397 1.843763 -1.884465 255 166 145
0.822011 1.746936 -2.005518 108 140 184
0.588281 2.029864 -2.655697 37 48 54
0.490728 1.757700 -1.817490 236 111 89
0.215178 2.253148 -2.396713 141 114 107
0.816154 1.741670 -2.006629 121 134 173
0.345782 2.447402 -2.611262 194 130 127
0.636757 1.774858 -1.833035 224 101 65
0.709779 1.826660 -1.735744 73 132 192
0.548802 1.614209 -2.021971 84 106 153
0.893811 1.963684 -1.741059 38 81 124
0.614650 1.639666 -2.025430 64 84 124
0.728063 1.926716 -2.728638 123 56 40
0.778508 1.847217 -1.818553 121 150 190
0.590898 2.502698 -2.586803 96 30 21
0.971062 1.927872 -1.792592 90 138 187
0.876427 1.825929 -2.018796 98 155 210
0.314972 2.373595 -2.635988 165 136 141
0.618364 1.775390 -1.856769 191 64 49
0.394647 1.887318 -1.144055 37 86 83
0.641336 1.778731 -1.829138 255 199 148
0.640767 1.630303 -2.034081 56 80 116
0.290491 2.383703 -2.631745 160 106 94
0.578614 1.765523 -1.860600 255 97 78
0.510071 1.864759 -1.351364 204 204 202
0.418911 1.734622 -1.886660 55 101 150
0.418116 1.609687 -2.066838 216 231 232
0.251795 2.320481 -2.648638 194 181 190
0.769709 1.832214 -1.845518 244 104 87
0.510113 1.849622 -1.373774 96 73 59
0.350028 1.724433 -1.905573 38 82 127
0.605030 1.627441 -2.056660 55 99 151
0.715826 1.799464 -2.763252 126 67 62
0.769922 1.831693 -1.845663 244 104 87
0.437839 1.772840 -1.526997 27 30 39
0.278314 1.694543 -1.915244 242 203 196
0.589511 1.632803 -2.060607 127 176 220
0.351406 2.215899 -2.682134 162 101 100
0.631025 1.776510 -1.873816 246 112 100
0.246144 1.675282 -1.607975 27 34 40
0.460122 1.751889 -1.906693 57 108 161
0.260264 2.290644 -2.661963 193 188 198
0.609498 1.765634 -1.896488 225 76 67
0.154739 1.683096 -1.749952 119 91 88
0.194326 1.677715 -1.933069 133 99 71
0.358282 2.138484 -2.700475 140 69 49
0.519090 1.711520 -1.946810 255 195 107
0.156360 1.709355 -1.753571 133 110 102
0.631031 1.741170 -1.929384 255 137 120
0.336409 1.617076 -1.968616 11 16 22
0.792639 1.841117 -1.872553 255 133 119
0.409936 1.691010 -1.268374 33 82 68
0.359819 1.644008 -1.995598 32 49 72
0.633454 1.766778 -1.893196 217 59 48
0.447435 1.764393 -1.860243 16 24 35
0.827815 1.857661 -1.871905 231 119 81
0.768360 1.654267 -2.086644 211 230 249
0.525697 1.742426 -1.907773 239 114 96
0.700650 1.768599 -1.899221 230 73 54
0.431822 1.747356 -1.918935 160 182 213
0.455401 1.627896 -2.049429 208 226 246
0.628024 1.758613 -1.911610 193 31 21
0.239119 1.684679 -1.953103 192 203 219
0.656624 1.618855 -2.101014 194 207 226
0.692478 1.744632 -1.929957 247 126 105
0.375634 2.129600 -1.956755 128 97 76
0.521122 1.626084 -2.093678 137 143 152
0.594200 1.637167 -2.030106 83 115 163
0.398875 2.162232 -1.991487 0 0 0
0.960168 2.165528 -2.646934 180 103 87
0.590103 1.628936 -2.036265 228 172 158
0.429839 1.621691 -2.050192 202 211 226
0.955511 2.122258 -2.649862 190 188 202
0.597440 1.635016 -2.036837 230 143 113
0.215513 2.222261 -2.396714 177 177 187
0.568245 2.134840 -2.553391 125 130 126
0.488751 1.754747 -1.776299 14 8 13
1.032491 2.245153 -2.619105 154 63 36
0.578911 2.117342 -2.578592 22 30 31
0.936584 1.937318 -1.771844 254 177 124
0.575291 2.110222 -2.576711 22 30 31
0.936562 1.937800 -1.771191 254 177 124
0.978824 2.261471 -2.622765 181 158 165
0.175215 2.217864 -2.470040 84 105 118
0.784240 1.849231 -1.817421 33 18 28
0.143448 2.294925 -2.410537 98 69 36
0.794898 1.855632 -1.829574 49 18 33
0.554457 2.063965 -2.617231 28 32 33
0.794898 1.855632 -1.829574 49 18 33
0.549445 1.701562 -1.193027 148 205 214
0.915042 1.913747 -2.721556 139 60 48
0.613096 1.775078 -1.852103 249 150 106
0.425086 1.798134 -1.311450 71 93 73
0.536490 1.758411 -1.859739 18 7 5
0.188049 1.773928 -1.835430 143 124 113
0.816633 1.987728 -2.706204 129 57 42
0.712635 1.808154 -1.845342 221 80 60
0.816160 1.987260 -2.706146 129 57 42
0.775717 1.837186 -1.839281 255 147 127
0.318628 2.052096 -1.967610 31 30 35
1.041521 1.992561 -2.786222 175 117 107
0.798085 1.854733 -1.839330 255 166 137
0.769869 1.984132 -2.709757 186 187 207
0.673642 1.778965 -1.874474 197 33 23
0.415247 1.638738 -2.075648 100 67 62
0.354154 2.352247 -2.636608 178 111 109
0.731698 1.806051 -1.867134 26 18 27
0.228263 2.251929 -2.317878 140 119 114
0.606485 2.018224 -2.695339 152 83 76
0.847838 1.869233 -1.862071 83 89 116
0.607877 2.053902 -2.716967 102 23 6
0.856949 1.866923 -1.869113 248 175 108
0.600585 1.770312 -1.073179 91 15 12
0.358523 2.273871 -2.657494 140 80 77
0.796458 1.845338 -1.878274 31 16 11
0.333874 2.290784 -2.651972 134 54 43
0.582377 2.046532 -2.715967 170 28 1
0.842582 1.858557 -1.881709 255 159 124
0.468013 1.695662 -1.327633 213 214 219
0.807948 1.844364 -1.885853 247 126 115
0.195543 1.818487 -1.926522 145 119 113
0.241634 2.273464 -2.669956 131 54 40
0.538181 1.738074 -1.923390 19 14 20
0.595306 1.607078 -2.091837 201 207 223
0.374270 2.113813 -2.701925 149 71 58
0.916027 1.893272 -1.902636 222 164 146
0.227753 2.327537 -2.120362 184 161 82
0.281703 2.194072 -2.684923 199 196 207
0.398707 1.666990 -1.968374 49 91 141
0.278010 2.075485 -2.196368 142 97 78
0.356290 2.114259 -2.709043 205 201 215
0.418954 1.783494 -1.759643 171 91 38
0.617925 2.083262 -2.360583 197 195 206
0.544958 1.801114 -2.776964 139 67 55
0.432693 1.770945 -1.802641 52 92 141
0.194429 2.279699 -2.340954 18 14 18
1.246845 1.102567 -2.976210 86 65 43
0.512962 1.756399 -1.823723 197 60 41
0.473067 1.789608 -1.491751 39 47 70
1.205090 0.861342 -3.043548 120 83 49
0.476195 1.748856 -1.842968 19 16 23
0.228903 1.759706 -1.896829 34 17 10
1.263430 0.756339 -3.070623 114 84 50
0.621908 1.775938 -1.832153 244 144 103
0.422796 1.685871 -1.938343 17 8 15
1.263735 0.756618 -3.070759 114 84 50
0.645336 1.778449 -1.860274 254 140 129
0.422796 1.685871 -1.938343 17 8 15
0.286123 1.792993 -2.858342 132 81 41
0.588239 1.758368 -1.898208 12 5 3
0.517492 1.606370 -2.044068 43 58 79
0.438645 1.850969 -1.140876 39 83 82
0.476681 1.705985 -1.930197 237 171 98
0.517492 1.606370 -2.044068 43 58 79
0.395047 1.884183 -1.143305 60 101 100
0.683480 1.746345 -1.925840 12 10 15
0.306448 2.364884 -1.986143 176 177 133
0.521843 1.721865 -1.228696 46 70 48
0.683539 1.746346 -1.925824 12 10 15
0.604065 2.126410 -2.320130 132 87 67
0.364398 1.924085 -1.181364 44 87 81
0.740350 1.641118 -2.094840 209 230 244
0.452623 2.055204 -2.125079 127 75 58
0.463938 1.750583 -1.241249 39 61 48
1.117313 2.216143 -2.122391 164 141 109
0.434267 1.755024 -1.707024 7 10 16
0.507495 1.755781 -1.319111 125 101 78
0.169597 1.666576 -1.747622 218 239 255
0.599148 1.729401 -1.645561 74 113 152
0.415680 1.787199 -1.747276 25 32 43
0.601823 1.771579 -1.689767 170 186 214
1.068082 2.000671 -1.706360 131 131 139
0.536917 1.753363 -1.830505 10 7 5
0.667131 1.789244 -1.719780 184 200 226
0.510018 1.900039 -1.660914 14 22 24
0.484224 1.747253 -1.852242 243 176 106
0.537427 1.748188 -1.810268 105 62 89
0.923122 1.929198 -1.789001 217 120 107
0.484395 1.745155 -1.852343 243 176 106
0.583841 1.762697 -1.770080 135 171 207
0.533995 1.749773 -1.870787 248 126 110
0.353513 1.629545 -1.969590 18 33 51
0.565619 1.763884 -1.780223 13 25 39
1.119855 2.212896 -2.137697 232 239 231
0.749004 1.850298 -1.807224 165 163 180
0.165403 1.659758 -1.722121 220 242 255
0.522290 1.758105 -1.872014 67 28 31
0.920788 1.922573 -1.849499 123 162 201
0.324587 1.730513 -1.799560 98 145 191
0.756286 1.807421 -1.859272 253 144 139
0.475603 1.761098 -1.805650 210 77 58
0.304311 1.720650 -1.813598 27 53 88
0.927055 1.930741 -1.783955 241 147 97
0.287966 2.185377 -2.198729 143 122 108
0.253308 1.697405 -1.817464 37 67 98
0.640842 1.781093 -1.828983 255 189 137
0.265479 2.123382 -2.258481 105 85 78
0.591453 1.739849 -1.935820 68 18 14
0.524913 1.760448 -1.849558 12 9 16
0.517413 1.741429 -1.833247 104 13 15
0.590294 1.737576 -1.936266 68 18 14
0.629228 1.778914 -1.846261 10 5 6
0.445465 1.710992 -1.957573 64 96 147
0.798266 1.839750 -1.912407 97 145 193
0.671095 1.613547 -2.088730 143 147 156
